16.37500 78.812505  97.45
16.45833 78.812505  96.40
16.54167 78.812505  88.27
16.62500 78.812505  82.64
16.70833 78.812505  84.98
16.79167 78.812505  85.30
16.87500 78.812505  94.07
16.95833 78.812505  71.76
16.04167 78.687495  87.04
16.12500 78.687495  89.65
16.20833 78.687495 103.19
16.29167 78.687495  95.21
16.37500 78.687495  91.34
16.45833 78.687495  92.85
16.54167 78.687495  92.05
16.62500 78.687495  89.57
16.70833 78.687495  90.76
16.79167 78.687495  88.28
16.87500 78.687495  93.99
16.95833 78.687495  79.99
16.04167 78.5625  77.13
16.12500 78.5625  86.52
16.20833 78.5625 107.13
16.29167 78.5625  95.42
16.37500 78.5625  85.19
16.45833 78.5625  83.63
16.54167 78.5625  89.50
16.62500 78.5625  88.12
16.70833 78.5625  87.37
16.79167 78.5625  82.98
16.87500 78.5625  77.90
16.95833 78.5625  74.39
16.04167 78.437505  70.60
16.12500 78.437505  72.38
16.20833 78.437505  83.35
16.29167 78.437505 101.96
16.37500 78.437505  86.11
16.45833 78.437505  77.77
16.54167 78.437505  82.55
16.62500 78.437505  82.66
16.70833 78.437505  79.09
16.79167 78.437505  88.36
16.87500 78.437505  72.03
16.95833 78.437505  77.90
16.04167 78.312495  62.32
16.12500 78.312495  70.46
16.20833 78.312495  83.76
16.29167 78.312495  95.89
16.37500 78.312495  86.88
16.45833 78.312495  75.61
16.54167 78.312495  73.99
16.62500 78.312495  75.79
16.70833 78.312495  73.66
16.79167 78.312495  67.34
16.87500 78.312495  64.47
16.95833 78.312495  66.80
16.04167 78.1875  60.54
16.12500 78.1875  68.60
16.20833 78.1875  82.88
16.29167 78.1875  89.09
16.37500 78.1875  74.60
16.45833 78.1875  66.91
16.54167 78.1875  67.17
16.62500 78.1875  69.88
16.70833 78.1875  74.04
16.79167 78.1875  80.33
16.87500 78.1875  81.59
16.95833 78.1875  75.71
16.04167 78.062505  59.70
16.12500 78.062505  61.63
16.20833 78.062505  62.63
16.29167 78.062505  62.64
16.37500 78.062505  69.12
16.45833 78.062505  77.79
16.54167 78.062505  83.36
16.62500 78.062505  78.55
16.70833 78.062505  73.91
16.79167 78.062505  82.31
16.87500 78.062505  86.60
16.95833 78.062505  85.47
17.04167 79.437495  89.60
17.12500 79.437495  90.76
17.20833 79.437495  95.75
17.29167 79.437495  98.27
17.37500 79.437495 101.05
17.45833 79.437495 105.36
17.54167 79.437495 106.95
17.62500 79.437495  92.25
17.70833 79.437495  82.37
17.79167 79.437495  84.88
17.87500 79.437495  81.77
17.95833 79.437495  82.16
17.04167 79.3125  84.74
17.12500 79.3125  90.12
17.20833 79.3125  91.28
17.29167 79.3125  91.73
17.37500 79.3125  96.79
17.45833 79.3125 101.12
17.54167 79.3125 107.86
17.62500 79.3125 108.58
17.70833 79.3125  94.10
17.79167 79.3125 101.18
17.87500 79.3125  93.86
17.95833 79.3125  96.02
17.04167 79.187505  78.54
17.12500 79.187505  83.56
17.20833 79.187505  88.15
17.29167 79.187505  90.58
17.37500 79.187505  97.57
17.45833 79.187505 106.06
17.54167 79.187505 108.69
17.62500 79.187505 106.63
17.70833 79.187505  99.34
17.79167 79.187505 101.74
17.87500 79.187505 101.93
17.95833 79.187505 105.01
17.04167 79.062495  88.26
17.12500 79.062495  85.16
17.20833 79.062495  91.52
17.29167 79.062495 102.64
17.37500 79.062495 110.28
17.45833 79.062495 111.11
17.54167 79.062495 107.36
17.62500 79.062495 104.10
17.70833 79.062495 108.45
17.79167 79.062495 115.31
17.87500 79.062495 108.55
17.95833 79.062495 104.29
17.04167 78.9375  89.32
17.12500 78.9375  87.99
17.20833 78.9375 102.95
17.29167 78.9375 105.94
17.37500 78.9375 114.08
17.45833 78.9375 108.99
17.54167 78.9375 110.89
17.62500 78.9375 109.73
17.70833 78.9375 114.51
17.79167 78.9375 120.35
17.87500 78.9375 125.10
17.95833 78.9375 101.33
17.04167 78.812505  92.16
17.12500 78.812505 102.69
17.20833 78.812505 106.94
17.29167 78.812505 112.95
17.37500 78.812505 115.53
17.45833 78.812505 117.48
17.54167 78.812505 118.82
17.62500 78.812505 117.31
17.70833 78.812505 116.77
17.79167 78.812505 118.29
17.87500 78.812505 106.70
17.95833 78.812505 102.47
17.04167 78.687495  93.10
17.12500 78.687495  93.43
17.20833 78.687495  99.76
17.29167 78.687495 107.69
17.37500 78.687495 120.22
17.45833 78.687495 116.42
17.54167 78.687495 113.35
17.62500 78.687495 119.26
17.70833 78.687495 116.84
17.79167 78.687495 113.22
17.87500 78.687495 109.42
17.95833 78.687495 110.18
17.04167 78.5625  82.03
17.12500 78.5625  91.72
17.20833 78.5625  96.87
17.29167 78.5625 104.76
17.37500 78.5625 114.42
17.45833 78.5625 113.57
17.54167 78.5625 110.18
17.62500 78.5625 110.51
17.70833 78.5625 107.83
17.79167 78.5625 103.97
17.87500 78.5625 112.04
17.95833 78.5625 107.66
17.04167 78.437505  74.93
17.12500 78.437505  81.80
17.20833 78.437505  91.73
17.29167 78.437505  99.38
17.37500 78.437505  99.98
17.45833 78.437505 102.78
17.54167 78.437505 104.47
17.62500 78.437505 102.50
17.70833 78.437505  97.51
17.79167 78.437505  96.32
17.87500 78.437505  95.01
17.95833 78.437505  97.88
17.04167 78.312495  74.91
17.12500 78.312495  76.39
17.20833 78.312495  81.60
17.29167 78.312495  83.19
17.37500 78.312495  83.40
17.45833 78.312495  85.17
17.54167 78.312495  94.55
17.62500 78.312495  94.54
17.70833 78.312495  91.23
17.79167 78.312495  84.63
17.87500 78.312495  84.40
17.95833 78.312495  88.51
17.04167 78.1875  65.82
17.12500 78.1875  73.77
17.20833 78.1875  70.51
17.29167 78.1875  68.09
17.37500 78.1875  70.84
17.45833 78.1875  73.84
17.54167 78.1875  81.93
17.62500 78.1875  78.88
17.70833 78.1875  77.09
17.79167 78.1875  84.33
17.87500 78.1875  90.15
17.95833 78.1875  90.01
17.04167 78.062505  82.89
17.12500 78.062505  85.29
17.20833 78.062505  87.74
17.29167 78.062505  91.68
17.37500 78.062505  97.96
17.45833 78.062505 101.15
17.54167 78.062505  99.96
17.62500 78.062505  92.80
17.70833 78.062505  86.43
17.79167 78.062505  87.97
17.87500 78.062505  96.60
17.95833 78.062505 101.13
18.04167 79.437495  81.26
18.12500 79.437495  78.44
18.20833 79.437495  76.26
18.29167 79.437495  71.72
18.37500 79.437495  72.35
18.45833 79.437495  69.01
18.54167 79.437495  65.49
18.62500 79.437495  60.90
18.70833 79.437495  50.87
18.79167 79.437495  60.29
18.87500 79.437495  84.75
18.95833 79.437495  94.47
18.04167 79.3125  92.40
18.12500 79.3125  85.06
18.20833 79.3125  88.50
18.29167 79.3125  85.69
18.37500 79.3125  83.37
18.45833 79.3125  83.57
18.54167 79.3125  82.55
18.62500 79.3125  77.79
18.70833 79.3125  68.74
18.79167 79.3125  59.16
18.87500 79.3125  58.74
18.95833 79.3125  63.82
18.04167 79.187505 103.63
18.12500 79.187505  85.35
18.20833 79.187505  85.41
18.29167 79.187505  88.33
18.37500 79.187505  83.34
18.45833 79.187505  84.70
18.54167 79.187505  87.24
18.62500 79.187505  86.38
18.70833 79.187505  90.56
18.79167 79.187505  92.21
18.87500 79.187505  85.17
18.95833 79.187505  63.32
18.04167 79.062495 108.26
18.12500 79.062495  93.30
18.20833 79.062495  91.24
18.29167 79.062495  83.65
18.37500 79.062495  83.99
18.45833 79.062495  86.81
18.54167 79.062495  90.63
18.62500 79.062495  91.81
18.70833 79.062495  92.33
18.79167 79.062495  95.39
18.87500 79.062495  89.73
18.95833 79.062495  63.01
18.04167 78.9375  99.88
18.12500 78.9375 103.57
18.20833 78.9375  98.56
18.29167 78.9375  89.96
18.37500 78.9375  82.09
18.45833 78.9375  93.59
18.54167 78.9375  98.89
18.62500 78.9375  92.27
18.70833 78.9375  91.60
18.79167 78.9375  95.30
18.87500 78.9375  86.77
18.95833 78.9375  75.06
18.04167 78.812505 107.73
18.12500 78.812505 103.36
18.20833 78.812505 102.35
18.29167 78.812505  98.66
18.37500 78.812505  86.21
18.45833 78.812505  98.75
18.54167 78.812505  99.15
18.62500 78.812505  92.86
18.70833 78.812505  93.32
18.79167 78.812505  93.18
18.87500 78.812505  92.03
18.95833 78.812505  92.03
18.04167 78.687495 107.24
18.12500 78.687495 106.87
18.20833 78.687495 105.46
18.29167 78.687495 100.77
18.37500 78.687495  91.17
18.45833 78.687495  97.88
18.54167 78.687495  98.59
18.62500 78.687495 100.25
18.70833 78.687495 100.98
18.79167 78.687495 102.79
18.87500 78.687495 106.43
18.95833 78.687495 109.76
18.04167 78.5625 108.77
18.12500 78.5625 104.91
18.20833 78.5625  98.22
18.29167 78.5625  97.40
18.37500 78.5625  92.62
18.45833 78.5625  94.53
18.54167 78.5625  97.36
18.62500 78.5625 114.47
18.70833 78.5625 109.52
18.79167 78.5625 112.13
18.87500 78.5625 119.87
18.95833 78.5625 125.01
18.04167 78.437505 102.40
18.12500 78.437505 100.87
18.20833 78.437505  97.22
18.29167 78.437505  90.63
18.37500 78.437505  87.24
18.45833 78.437505  91.83
18.54167 78.437505 102.67
18.62500 78.437505 125.91
18.70833 78.437505 115.98
18.79167 78.437505 111.29
18.87500 78.437505 120.34
18.95833 78.437505 120.52
18.04167 78.312495  87.73
18.12500 78.312495  86.20
18.20833 78.312495  94.49
18.29167 78.312495 101.89
18.37500 78.312495  97.66
18.45833 78.312495  89.94
18.54167 78.312495  94.79
18.62500 78.312495 101.06
18.70833 78.312495 110.14
18.79167 78.312495 105.62
18.87500 78.312495 116.25
18.95833 78.312495 121.95
18.04167 78.1875  91.52
18.12500 78.1875  97.72
18.20833 78.1875 101.62
18.29167 78.1875 123.92
18.37500 78.1875 119.51
18.45833 78.1875 110.77
18.54167 78.1875 122.39
18.62500 78.1875  99.36
18.70833 78.1875  97.06
18.79167 78.1875 104.50
18.87500 78.1875 108.67
18.95833 78.1875 115.56
18.04167 78.062505 101.85
18.12500 78.062505 106.27
18.20833 78.062505 111.43
18.29167 78.062505 116.81
18.37500 78.062505 129.00
18.45833 78.062505 134.35
18.54167 78.062505 115.82
18.62500 78.062505 105.70
18.70833 78.062505 101.54
18.79167 78.062505 102.99
18.87500 78.062505 106.61
18.95833 78.062505 106.11
19.04167 79.437495  95.04
19.12500 79.437495  99.41
19.20833 79.437495 106.45
19.29167 79.437495 125.37
19.37500 79.437495 128.68
19.45833 79.437495 128.35
19.54167 79.437495 124.11
19.62500 79.437495 118.99
19.70833 79.437495 118.51
19.79167 79.437495 120.88
19.87500 79.437495 119.68
19.95833 79.437495 119.29
19.04167 79.3125  91.58
19.12500 79.3125  99.39
19.20833 79.3125 111.90
19.29167 79.3125 122.40
19.37500 79.3125 119.56
19.45833 79.3125 119.31
19.54167 79.3125 119.50
19.62500 79.3125 117.34
19.70833 79.3125 116.97
19.79167 79.3125 118.35
19.87500 79.3125 115.72
19.95833 79.3125 114.97
19.04167 79.187505  83.44
19.12500 79.187505 100.12
19.20833 79.187505 106.89
19.29167 79.187505 115.22
19.37500 79.187505 116.86
19.45833 79.187505 111.58
19.54167 79.187505 107.76
19.62500 79.187505 119.59
19.70833 79.187505 122.82
19.79167 79.187505 121.84
19.87500 79.187505 120.05
19.95833 79.187505 120.56
19.04167 79.062495  72.97
19.12500 79.062495  94.04
19.20833 79.062495 100.60
19.29167 79.062495 106.28
19.37500 79.062495 108.63
19.45833 79.062495 103.55
19.54167 79.062495 101.68
19.62500 79.062495 117.08
19.70833 79.062495 131.28
19.79167 79.062495 132.58
19.87500 79.062495 129.92
19.95833 79.062495 134.08
19.04167 78.9375  63.46
19.12500 78.9375  64.36
19.20833 78.9375  65.72
19.29167 78.9375  76.34
19.37500 78.9375  81.27
19.45833 78.9375  93.61
19.54167 78.9375  91.79
19.62500 78.9375 106.94
19.70833 78.9375 114.64
19.79167 78.9375 133.11
19.87500 78.9375 141.39
19.95833 78.9375 144.17
19.04167 78.812505  90.94
19.12500 78.812505  88.35
19.20833 78.812505  79.07
19.29167 78.812505  76.05
19.37500 78.812505  77.79
19.45833 78.812505  74.08
19.54167 78.812505  70.89
19.62500 78.812505  78.71
19.70833 78.812505  91.28
19.79167 78.812505 101.21
19.87500 78.812505 121.94
19.95833 78.812505 128.98
19.04167 78.687495 118.28
19.12500 78.687495 123.58
19.20833 78.687495 126.76
19.29167 78.687495 110.24
19.37500 78.687495  98.24
19.45833 78.687495  86.61
19.54167 78.687495  98.43
19.62500 78.687495  97.42
19.70833 78.687495  83.27
19.79167 78.687495  69.76
19.87500 78.687495  66.69
19.95833 78.687495  82.96
19.04167 78.5625 127.43
19.12500 78.5625 125.84
19.20833 78.5625 127.87
19.29167 78.5625 128.13
19.37500 78.5625 119.10
19.45833 78.5625 116.31
19.54167 78.5625 104.25
19.62500 78.5625 106.15
19.70833 78.5625 110.50
19.79167 78.5625 110.16
19.87500 78.5625  98.69
19.95833 78.5625  74.72
19.04167 78.437505 125.36
19.12500 78.437505 126.16
19.20833 78.437505 122.07
19.29167 78.437505 122.65
19.37500 78.437505 123.90
19.45833 78.437505 119.02
19.54167 78.437505 109.85
19.62500 78.437505 100.11
19.70833 78.437505 100.53
19.79167 78.437505 107.62
19.87500 78.437505 105.14
19.95833 78.437505 103.99
19.04167 78.312495 127.51
19.12500 78.312495 129.68
19.20833 78.312495 126.76
19.29167 78.312495 119.93
19.37500 78.312495 112.14
19.45833 78.312495 109.70
19.54167 78.312495 107.90
19.62500 78.312495 104.56
19.70833 78.312495  98.91
19.79167 78.312495  94.41
19.87500 78.312495  98.24
19.95833 78.312495  99.12
19.04167 78.1875 124.66
19.12500 78.1875 126.54
19.20833 78.1875 122.31
19.29167 78.1875 111.48
19.37500 78.1875 104.21
19.45833 78.1875 102.74
19.54167 78.1875 101.64
19.62500 78.1875 101.76
19.70833 78.1875 100.00
19.79167 78.1875  93.45
19.87500 78.1875  87.91
19.95833 78.1875  89.31
19.04167 78.062505 105.01
19.12500 78.062505 106.89
19.20833 78.062505 111.87
19.29167 78.062505 114.59
19.37500 78.062505 115.47
19.45833 78.062505 109.63
19.54167 78.062505 109.66
19.62500 78.062505 111.63
19.70833 78.062505 112.14
19.79167 78.062505 110.95
19.87500 78.062505 104.78
19.95833 78.062505 102.00
20.04167 79.437495 117.42
20.12500 79.437495 115.81
20.20833 79.437495 119.71
20.29167 79.437495 124.93
20.37500 79.437495 130.69
20.45833 79.437495 137.09
20.54167 79.437495 128.10
20.62500 79.437495 138.40
20.70833 79.437495 151.05
20.79167 79.437495 136.19
20.87500 79.437495 122.96
20.95833 79.437495 114.32
20.04167 79.3125 122.34
20.12500 79.3125 126.03
20.20833 79.3125 115.55
20.29167 79.3125 112.19
20.37500 79.3125 114.15
20.45833 79.3125 124.13
20.54167 79.3125 133.60
20.62500 79.3125 120.07
20.70833 79.3125 120.40
20.79167 79.3125 122.05
20.87500 79.3125 117.17
20.95833 79.3125 114.26
20.04167 79.187505 113.72
20.12500 79.187505 110.90
20.20833 79.187505 113.39
20.29167 79.187505 105.92
20.37500 79.187505 106.10
20.45833 79.187505 105.17
20.54167 79.187505 111.21
20.62500 79.187505 117.90
20.70833 79.187505 108.45
20.79167 79.187505 110.56
20.87500 79.187505 116.16
20.95833 79.187505 113.38
20.04167 79.062495 128.24
20.12500 79.062495 119.45
20.20833 79.062495 108.76
20.29167 79.062495 103.73
20.37500 79.062495 102.54
20.45833 79.062495  98.33
20.54167 79.062495 105.47
20.62500 79.062495 104.39
20.70833 79.062495 116.92
20.79167 79.062495 134.53
20.87500 79.062495 128.31
20.95833 79.062495 113.91
20.04167 78.9375 142.54
20.12500 78.9375 130.33
20.20833 78.9375 118.53
20.29167 78.9375 108.64
20.37500 78.9375 107.90
20.45833 78.9375 107.48
20.54167 78.9375  97.86
20.62500 78.9375  94.96
20.70833 78.9375 109.85
20.79167 78.9375 127.67
20.87500 78.9375 129.11
20.95833 78.9375 117.76
20.04167 78.812505 123.64
20.12500 78.812505 125.41
20.20833 78.812505 125.56
20.29167 78.812505 124.37
20.37500 78.812505 127.02
20.45833 78.812505 117.65
20.54167 78.812505 109.72
20.62500 78.812505  99.71
20.70833 78.812505  96.30
20.79167 78.812505 107.01
20.87500 78.812505 108.34
20.95833 78.812505 103.92
20.04167 78.687495 105.85
20.12500 78.687495 113.87
20.20833 78.687495 118.81
20.29167 78.687495 122.92
20.37500 78.687495 125.25
20.45833 78.687495 110.55
20.54167 78.687495  98.26
20.62500 78.687495  98.85
20.70833 78.687495  86.95
20.79167 78.687495  87.62
20.87500 78.687495  79.74
20.95833 78.687495  82.79
20.04167 78.5625  69.09
20.12500 78.5625  78.11
20.20833 78.5625  77.91
20.29167 78.5625  76.78
20.37500 78.5625  75.64
20.45833 78.5625  73.10
20.54167 78.5625  73.10
20.62500 78.5625  74.45
20.70833 78.5625  75.64
20.79167 78.5625  78.11
20.87500 78.5625  79.11
20.95833 78.5625  81.02
20.04167 78.437505  92.57
20.12500 78.437505  85.00
20.20833 78.437505  77.62
20.29167 78.437505  75.60
20.37500 78.437505  75.07
20.45833 78.437505  75.75
20.54167 78.437505  81.41
20.62500 78.437505  82.39
20.70833 78.437505  83.14
20.79167 78.437505  87.49
20.87500 78.437505  94.79
20.95833 78.437505  90.83
20.04167 78.312495  95.97
20.12500 78.312495  89.35
20.20833 78.312495  85.50
20.29167 78.312495  89.47
20.37500 78.312495  90.87
20.45833 78.312495  88.49
20.54167 78.312495  90.03
20.62500 78.312495  90.30
20.70833 78.312495  91.34
20.79167 78.312495  96.79
20.87500 78.312495 105.90
20.95833 78.312495 109.89
20.04167 78.1875  88.66
20.12500 78.1875  86.47
20.20833 78.1875  91.86
20.29167 78.1875  95.94
20.37500 78.1875  96.04
20.45833 78.1875  95.66
20.54167 78.1875  96.57
20.62500 78.1875 101.52
20.70833 78.1875 105.10
20.79167 78.1875 105.78
20.87500 78.1875 108.17
20.95833 78.1875 110.04
20.04167 78.062505 100.58
20.12500 78.062505 103.92
20.20833 78.062505 104.40
20.29167 78.062505 109.32
20.37500 78.062505 114.81
20.45833 78.062505 124.12
20.54167 78.062505 137.97
20.62500 78.062505 139.63
20.70833 78.062505 146.52
20.79167 78.062505 137.69
20.87500 78.062505 124.18
20.95833 78.062505 117.40
21.04167 79.437495 110.33
21.12500 79.437495 112.83
21.20833 79.437495 112.88
21.29167 79.437495 113.06
21.37500 79.437495 101.38
21.45833 79.437495  97.47
21.54167 79.437495 104.36
21.62500 79.437495 102.49
21.70833 79.437495 111.22
21.79167 79.437495 115.18
21.87500 79.437495 116.05
21.95833 79.437495 121.16
21.04167 79.3125 113.04
21.12500 79.3125 107.98
21.20833 79.3125 111.96
21.29167 79.3125 111.87
21.37500 79.3125 108.04
21.45833 79.3125  94.77
21.54167 79.3125  99.37
21.62500 79.3125 112.76
21.70833 79.3125 120.33
21.79167 79.3125 121.15
21.87500 79.3125 122.55
21.95833 79.3125 125.85
21.04167 79.187505 106.45
21.12500 79.187505 100.32
21.20833 79.187505  88.66
21.29167 79.187505  86.72
21.37500 79.187505  87.53
21.45833 79.187505  88.61
21.54167 79.187505  93.81
21.62500 79.187505 110.79
21.70833 79.187505 113.28
21.79167 79.187505 115.84
21.87500 79.187505 120.68
21.95833 79.187505 125.33
21.04167 79.062495 102.99
21.12500 79.062495  85.88
21.20833 79.062495 101.59
21.29167 79.062495 106.78
21.37500 79.062495 100.58
21.45833 79.062495  99.51
21.54167 79.062495 107.48
21.62500 79.062495 109.59
21.70833 79.062495 107.56
21.79167 79.062495 110.60
21.87500 79.062495 103.69
21.95833 79.062495 105.41
21.04167 78.9375 106.76
21.12500 78.9375  87.47
21.20833 78.9375  98.30
21.29167 78.9375 105.78
21.37500 78.9375 106.63
21.45833 78.9375 104.98
21.54167 78.9375  97.66
21.62500 78.9375  94.64
21.70833 78.9375  95.31
21.79167 78.9375  96.76
21.87500 78.9375 102.81
21.95833 78.9375 109.96
21.04167 78.812505 104.29
21.12500 78.812505  82.26
21.20833 78.812505  96.31
21.29167 78.812505  91.13
21.37500 78.812505  88.90
21.45833 78.812505  90.77
21.54167 78.812505  94.23
21.62500 78.812505  96.44
21.70833 78.812505 101.43
21.79167 78.812505 108.62
21.87500 78.812505 117.35
21.95833 78.812505 129.43
21.04167 78.687495  89.33
21.12500 78.687495  82.71
21.20833 78.687495  88.28
21.29167 78.687495  94.69
21.37500 78.687495  99.02
21.45833 78.687495 101.25
21.54167 78.687495 107.80
21.62500 78.687495 108.08
21.70833 78.687495 110.65
21.79167 78.687495 115.41
21.87500 78.687495 121.59
21.95833 78.687495 126.76
21.04167 78.5625  82.03
21.12500 78.5625  88.16
21.20833 78.5625  93.28
21.29167 78.5625  97.45
21.37500 78.5625 103.11
21.45833 78.5625 109.64
21.54167 78.5625 119.47
21.62500 78.5625 129.18
21.70833 78.5625 140.49
21.79167 78.5625 158.40
21.87500 78.5625 157.48
21.95833 78.5625 134.23
21.04167 78.437505  83.97
21.12500 78.437505  89.08
21.20833 78.437505  95.72
21.29167 78.437505 102.05
21.37500 78.437505 111.17
21.45833 78.437505 125.65
21.54167 78.437505 143.78
21.62500 78.437505 156.88
21.70833 78.437505 176.66
21.79167 78.437505 181.61
21.87500 78.437505 159.77
21.95833 78.437505 143.03
21.04167 78.312495  95.15
21.12500 78.312495  85.92
21.20833 78.312495  98.28
21.29167 78.312495 107.37
21.37500 78.312495 117.49
21.45833 78.312495 131.11
21.54167 78.312495 152.90
21.62500 78.312495 169.85
21.70833 78.312495 185.97
21.79167 78.312495 182.99
21.87500 78.312495 167.48
21.95833 78.312495 143.19
21.04167 78.1875 104.32
21.12500 78.1875  88.89
21.20833 78.1875  89.71
21.29167 78.1875 101.25
21.37500 78.1875 123.68
21.45833 78.1875 128.15
21.54167 78.1875 143.63
21.62500 78.1875 157.87
21.70833 78.1875 169.54
21.79167 78.1875 167.65
21.87500 78.1875 147.09
21.95833 78.1875 145.00
21.04167 78.062505 109.27
21.12500 78.062505 105.13
21.20833 78.062505  94.32
21.29167 78.062505  93.60
21.37500 78.062505 122.18
21.45833 78.062505 132.99
21.54167 78.062505 136.85
21.62500 78.062505 142.89
21.70833 78.062505 151.78
21.79167 78.062505 151.29
21.87500 78.062505 151.59
21.95833 78.062505 171.42
22.04167 79.437495 144.50
22.12500 79.437495 135.50
22.20833 79.437495 129.79
22.29167 79.437495 132.23
22.37500 79.437495 143.85
22.45833 79.437495 149.74
22.54167 79.437495 145.92
22.62500 79.437495 147.01
22.70833 79.437495 149.17
22.79167 79.437495 136.39
22.87500 79.437495 128.53
22.95833 79.437495 126.26
22.04167 79.3125 126.93
22.12500 79.3125 128.75
22.20833 79.3125 128.99
22.29167 79.3125 133.91
22.37500 79.3125 140.51
22.45833 79.3125 145.12
22.54167 79.3125 145.65
22.62500 79.3125 144.68
22.70833 79.3125 145.57
22.79167 79.3125 144.24
22.87500 79.3125 143.40
22.95833 79.3125 148.40
22.04167 79.187505 115.39
22.12500 79.187505 116.31
22.20833 79.187505 121.48
22.29167 79.187505 127.26
22.37500 79.187505 135.88
22.45833 79.187505 139.84
22.54167 79.187505 141.59
22.62500 79.187505 132.31
22.70833 79.187505 130.15
22.79167 79.187505 142.49
22.87500 79.187505 145.76
22.95833 79.187505 142.20
22.04167 79.062495 107.81
22.12500 79.062495 107.94
22.20833 79.062495 109.22
22.29167 79.062495 116.90
22.37500 79.062495 121.31
22.45833 79.062495 124.44
22.54167 79.062495 124.41
22.62500 79.062495 127.13
22.70833 79.062495 139.86
22.79167 79.062495 138.37
22.87500 79.062495 138.00
22.95833 79.062495 139.16
22.04167 78.9375 120.35
22.12500 78.9375 119.67
22.20833 78.9375 121.84
22.29167 78.9375 113.39
22.37500 78.9375 113.21
22.45833 78.9375 118.51
22.54167 78.9375 135.20
22.62500 78.9375 145.40
22.70833 78.9375 155.31
22.79167 78.9375 155.82
22.87500 78.9375 162.89
22.95833 78.9375 153.18
22.04167 78.812505 137.15
22.12500 78.812505 145.55
22.20833 78.812505 139.01
22.29167 78.812505 130.84
22.37500 78.812505 128.39
22.45833 78.812505 118.66
22.54167 78.812505 132.18
22.62500 78.812505 141.69
22.70833 78.812505 155.68
22.79167 78.812505 175.13
22.87500 78.812505 171.18
22.95833 78.812505 167.08
22.04167 78.687495 137.36
22.12500 78.687495 154.60
22.20833 78.687495 158.55
22.29167 78.687495 156.20
22.37500 78.687495 150.60
22.45833 78.687495 136.19
22.54167 78.687495 122.15
22.62500 78.687495 137.23
22.70833 78.687495 157.45
22.79167 78.687495 158.89
22.87500 78.687495 161.40
22.95833 78.687495 167.88
22.04167 78.5625 139.78
22.12500 78.5625 164.30
22.20833 78.5625 176.46
22.29167 78.5625 175.70
22.37500 78.5625 170.38
22.45833 78.5625 147.68
22.54167 78.5625 136.87
22.62500 78.5625 129.93
22.70833 78.5625 132.55
22.79167 78.5625 136.77
22.87500 78.5625 132.46
22.95833 78.5625 135.77
22.04167 78.437505 140.18
22.12500 78.437505 163.85
22.20833 78.437505 167.62
22.29167 78.437505 157.60
22.37500 78.437505 155.81
22.45833 78.437505 168.25
22.54167 78.437505 169.73
22.62500 78.437505 165.82
22.70833 78.437505 149.05
22.79167 78.437505 149.06
22.87500 78.437505 154.12
22.95833 78.437505 167.06
22.04167 78.312495 147.94
22.12500 78.312495 154.73
22.20833 78.312495 150.20
22.29167 78.312495 147.84
22.37500 78.312495 156.38
22.45833 78.312495 159.41
22.54167 78.312495 164.50
22.62500 78.312495 171.51
22.70833 78.312495 160.00
22.79167 78.312495 165.80
22.87500 78.312495 168.29
22.95833 78.312495 169.12
22.04167 78.1875 158.98
22.12500 78.1875 167.75
22.20833 78.1875 164.34
22.29167 78.1875 155.64
22.37500 78.1875 165.00
22.45833 78.1875 165.11
22.54167 78.1875 161.35
22.62500 78.1875 165.41
22.70833 78.1875 167.32
22.79167 78.1875 164.78
22.87500 78.1875 160.38
22.95833 78.1875 160.00
22.04167 78.062505 173.04
22.12500 78.062505 166.87
22.20833 78.062505 171.29
22.29167 78.062505 162.52
22.37500 78.062505 162.34
22.45833 78.062505 161.91
22.54167 78.062505 159.03
22.62500 78.062505 155.77
22.70833 78.062505 157.77
22.79167 78.062505 152.48
22.87500 78.062505 150.85
22.95833 78.062505 151.12
23.04167 79.437495 139.56
23.12500 79.437495 141.04
23.20833 79.437495 140.63
23.29167 79.437495 145.38
23.37500 79.437495 145.00
23.45833 79.437495 145.81
23.54167 79.437495 142.31
23.62500 79.437495 145.14
23.70833 79.437495 146.10
23.79167 79.437495 152.45
23.87500 79.437495 153.89
23.95833 79.437495 159.57
23.04167 79.3125 136.16
23.12500 79.3125 132.26
23.20833 79.3125 132.44
23.29167 79.3125 134.82
23.37500 79.3125 139.05
23.45833 79.3125 145.35
23.54167 79.3125 150.05
23.62500 79.3125 155.34
23.70833 79.3125 151.00
23.79167 79.3125 149.59
23.87500 79.3125 151.23
23.95833 79.3125 152.45
23.04167 79.187505 144.06
23.12500 79.187505 145.24
23.20833 79.187505 142.55
23.29167 79.187505 139.79
23.37500 79.187505 155.22
23.45833 79.187505 159.55
23.54167 79.187505 169.01
23.62500 79.187505 170.91
23.70833 79.187505 164.45
23.79167 79.187505 155.74
23.87500 79.187505 153.33
23.95833 79.187505 160.12
23.04167 79.062495 156.47
23.12500 79.062495 158.65
23.20833 79.062495 151.17
23.29167 79.062495 154.60
23.37500 79.062495 160.98
23.45833 79.062495 163.14
23.54167 79.062495 161.44
23.62500 79.062495 161.75
23.70833 79.062495 163.12
23.79167 79.062495 161.61
23.87500 79.062495 162.15
23.95833 79.062495 165.19
23.04167 78.9375 145.60
23.12500 78.9375 152.63
23.20833 78.9375 153.26
23.29167 78.9375 166.25
23.37500 78.9375 173.68
23.45833 78.9375 170.72
23.54167 78.9375 165.13
23.62500 78.9375 161.39
23.70833 78.9375 155.78
23.79167 78.9375 156.51
23.87500 78.9375 167.59
23.04167 78.812505 160.91
23.12500 78.812505 166.95
23.20833 78.812505 176.15
23.29167 78.812505 174.36
23.37500 78.812505 177.72
23.45833 78.812505 177.78
23.54167 78.812505 168.38
23.04167 78.687495 166.00
23.12500 78.687495 176.26
23.20833 78.687495 171.32
23.29167 78.687495 167.17
23.37500 78.687495 171.86
23.04167 78.5625 165.07
23.12500 78.5625 178.64
23.20833 78.5625 171.61
23.29167 78.5625 166.18
23.04167 78.437505 149.05
23.12500 78.437505 144.67
23.20833 78.437505 148.39
23.04167 78.312495 165.33
23.12500 78.312495 152.62
23.20833 78.312495 140.46
23.29167 78.312495 137.36
23.37500 78.312495 129.05
23.45833 78.312495 128.96
23.54167 78.312495 127.72
23.04167 78.1875 152.69
23.12500 78.1875 152.50
23.20833 78.1875 153.55
23.29167 78.1875 152.41
23.37500 78.1875 148.69
23.45833 78.1875 141.38
23.54167 78.1875 134.68
23.62500 78.1875 132.20
23.04167 78.062505 150.47
23.12500 78.062505 146.49
23.20833 78.062505 145.66
23.29167 78.062505 141.55
23.37500 78.062505 141.71
23.45833 78.062505 142.91
23.54167 78.062505 142.05
23.62500 78.062505 135.75
23.70833 78.062505 136.55
14.20833 80.937495   4.05
14.29167 80.937495   2.79
14.37500 80.937495   2.26
14.45833 80.937495  32.37
14.54167 80.937495  29.05
14.62500 80.937495   5.24
14.70833 80.937495   3.19
14.79167 80.937495   3.71
14.87500 80.937495   5.93
14.95833 80.937495  12.20
14.20833 80.8125   2.72
14.29167 80.8125   2.24
14.37500 80.8125   1.05
14.45833 80.8125  21.47
14.54167 80.8125  11.87
14.62500 80.8125   4.36
14.70833 80.8125   4.39
14.79167 80.8125   9.21
14.87500 80.8125  12.00
14.95833 80.8125  20.98
14.29167 80.687505   0.72
14.37500 80.687505   0.93
14.45833 80.687505   0.00
14.54167 80.687505   1.07
14.62500 80.687505   6.96
14.70833 80.687505  12.57
14.79167 80.687505  18.09
14.87500 80.687505  19.97
14.95833 80.687505  25.65
14.29167 80.562495   4.67
14.37500 80.562495   7.73
14.45833 80.562495   8.05
14.54167 80.562495   0.91
14.62500 80.562495   2.20
14.70833 80.562495  16.49
14.79167 80.562495  24.28
14.87500 80.562495  27.59
14.95833 80.562495  36.15
14.29167 80.4375  14.09
14.37500 80.4375  18.55
14.45833 80.4375  13.63
14.54167 80.4375   3.30
14.62500 80.4375   1.38
14.70833 80.4375   6.02
14.79167 80.4375  17.50
14.87500 80.4375  30.77
14.95833 80.4375  42.39
14.29167 80.312505  19.73
14.37500 80.312505  16.03
14.45833 80.312505  17.33
14.54167 80.312505  37.78
14.62500 80.312505  19.52
14.70833 80.312505   1.53
14.79167 80.312505   9.33
14.87500 80.312505  28.02
14.95833 80.312505  47.66
14.37500 80.187495  28.98
14.45833 80.187495  31.13
14.54167 80.187495  55.19
14.62500 80.187495  37.53
14.70833 80.187495   2.31
14.79167 80.187495  13.92
14.87500 80.187495  17.63
14.95833 80.187495  40.56
14.37500 80.0625  66.40
14.45833 80.0625  44.13
14.54167 80.0625  14.59
14.62500 80.0625  43.30
14.70833 80.0625  29.84
14.79167 80.0625  23.04
14.87500 80.0625  23.03
14.95833 80.0625  24.78
14.37500 79.937505  31.72
14.45833 79.937505  23.80
14.54167 79.937505  25.54
14.62500 79.937505  42.53
14.70833 79.937505  63.96
14.79167 79.937505  38.63
14.87500 79.937505  26.49
14.95833 79.937505  26.47
14.37500 79.812495   1.90
14.45833 79.812495   9.98
14.54167 79.812495  37.34
14.62500 79.812495  41.02
14.70833 79.812495  37.37
14.79167 79.812495  25.66
14.87500 79.812495  24.11
14.95833 79.812495  24.35
14.37500 79.6875  22.07
14.45833 79.6875  49.18
14.54167 79.6875  63.09
14.62500 79.6875  62.21
14.70833 79.6875  65.22
14.79167 79.6875  59.46
14.87500 79.6875  52.80
14.95833 79.6875  52.76
14.29167 79.562505  44.12
14.37500 79.562505  12.84
14.45833 79.562505  47.40
14.54167 79.562505  62.77
14.62500 79.562505  68.83
14.70833 79.562505  90.74
14.79167 79.562505  76.98
14.87500 79.562505  77.90
14.95833 79.562505  77.14
15.04167 80.937495  21.55
15.12500 80.937495  20.90
15.20833 80.937495  23.25
15.29167 80.937495  26.22
15.37500 80.937495  31.48
15.45833 80.937495  36.36
15.54167 80.937495  44.87
15.62500 80.937495  55.67
15.70833 80.937495  52.70
15.79167 80.937495  41.94
15.87500 80.937495  41.28
15.95833 80.937495  39.52
15.04167 80.8125  26.53
15.12500 80.8125  32.61
15.20833 80.8125  30.05
15.29167 80.8125  37.99
15.37500 80.8125  45.16
15.45833 80.8125  42.35
15.54167 80.8125  48.89
15.62500 80.8125  68.61
15.70833 80.8125  75.38
15.79167 80.8125  87.81
15.87500 80.8125 101.51
15.95833 80.8125  81.46
15.04167 80.687505  34.83
15.12500 80.687505  37.05
15.20833 80.687505  39.25
15.29167 80.687505  39.37
15.37500 80.687505  51.41
15.45833 80.687505  54.48
15.54167 80.687505  76.43
15.62500 80.687505 102.22
15.70833 80.687505 109.15
15.79167 80.687505 102.42
15.87500 80.687505 109.33
15.95833 80.687505 128.54
15.04167 80.562495  43.92
15.12500 80.562495  50.31
15.20833 80.562495  47.63
15.29167 80.562495  47.43
15.37500 80.562495  59.85
15.45833 80.562495  76.95
15.54167 80.562495  80.66
15.62500 80.562495  96.66
15.70833 80.562495  96.53
15.79167 80.562495 105.64
15.87500 80.562495 124.90
15.95833 80.562495 165.83
15.04167 80.4375  55.76
15.12500 80.4375  64.39
15.20833 80.4375  70.20
15.29167 80.4375  82.40
15.37500 80.4375  87.77
15.45833 80.4375 101.36
15.54167 80.4375  78.51
15.62500 80.4375  80.29
15.70833 80.4375 101.64
15.79167 80.4375 110.34
15.87500 80.4375 135.47
15.95833 80.4375 137.45
15.04167 80.312505  63.54
15.12500 80.312505  73.35
15.20833 80.312505  77.10
15.29167 80.312505  83.92
15.37500 80.312505  90.63
15.45833 80.312505  94.34
15.54167 80.312505  95.61
15.62500 80.312505 103.23
15.70833 80.312505 108.73
15.79167 80.312505 123.19
15.87500 80.312505 126.68
15.95833 80.312505 132.45
15.04167 80.187495  57.72
15.12500 80.187495  63.87
15.20833 80.187495  66.07
15.29167 80.187495  78.02
15.37500 80.187495  88.68
15.45833 80.187495 120.51
15.54167 80.187495 129.36
15.62500 80.187495 124.43
15.70833 80.187495 116.41
15.79167 80.187495 109.76
15.87500 80.187495 113.00
15.95833 80.187495 126.75
15.04167 80.0625  35.07
15.12500 80.0625  51.39
15.20833 80.0625  53.62
15.29167 80.0625  66.94
15.37500 80.0625  78.74
15.45833 80.0625 101.29
15.54167 80.0625 108.10
15.62500 80.0625 112.76
15.70833 80.0625 103.11
15.79167 80.0625 102.39
15.87500 80.0625 113.20
15.95833 80.0625 127.24
15.04167 79.937505  30.62
15.12500 79.937505  33.89
15.20833 79.937505  45.57
15.29167 79.937505  54.39
15.37500 79.937505  60.53
15.45833 79.937505  77.45
15.54167 79.937505  86.14
15.62500 79.937505 105.72
15.70833 79.937505  99.17
15.79167 79.937505  95.14
15.87500 79.937505 111.17
15.95833 79.937505 103.82
15.04167 79.812495  30.01
15.12500 79.812495  38.25
15.20833 79.812495  46.41
15.29167 79.812495  52.99
15.37500 79.812495  54.55
15.45833 79.812495  54.56
15.54167 79.812495  78.15
15.62500 79.812495  96.43
15.70833 79.812495  92.75
15.79167 79.812495  88.78
15.87500 79.812495  88.27
15.95833 79.812495  87.84
15.04167 79.6875  55.15
15.12500 79.6875  47.32
15.20833 79.6875  44.81
15.29167 79.6875  52.85
15.37500 79.6875  56.85
15.45833 79.6875  69.14
15.54167 79.6875  81.88
15.62500 79.6875  89.78
15.70833 79.6875  87.76
15.79167 79.6875  84.45
15.87500 79.6875  79.08
15.95833 79.6875  79.58
15.04167 79.562505  80.51
15.12500 79.562505  89.51
15.20833 79.562505  67.31
15.29167 79.562505  84.29
15.37500 79.562505  88.27
15.45833 79.562505  91.60
15.54167 79.562505  85.82
15.62500 79.562505  74.90
15.70833 79.562505  71.98
15.79167 79.562505  73.45
15.87500 79.562505  71.92
15.95833 79.562505  64.57
16.04167 80.937495  39.41
16.12500 80.937495  56.40
16.20833 80.937495  63.69
16.29167 80.937495  77.76
16.37500 80.937495 111.25
16.45833 80.937495 157.24
16.54167 80.937495 149.36
16.62500 80.937495 153.92
16.70833 80.937495 165.29
16.79167 80.937495 182.45
16.87500 80.937495 204.56
16.95833 80.937495 176.66
16.04167 80.8125  82.86
16.12500 80.8125  62.26
16.20833 80.8125  68.92
16.29167 80.8125  80.77
16.37500 80.8125  94.29
16.45833 80.8125 123.84
16.54167 80.8125 163.75
16.62500 80.8125 155.24
16.70833 80.8125 158.39
16.79167 80.8125 167.32
16.87500 80.8125 169.63
16.95833 80.8125 164.42
16.04167 80.687505 141.03
16.12500 80.687505  93.30
16.20833 80.687505 104.20
16.29167 80.687505 110.98
16.37500 80.687505  93.72
16.45833 80.687505 107.65
16.54167 80.687505 139.34
16.62500 80.687505 151.82
16.70833 80.687505 144.22
16.79167 80.687505 150.24
16.87500 80.687505 151.22
16.04167 80.562495 177.78
16.12500 80.562495 170.48
16.20833 80.562495 162.26
16.37500 80.562495 158.23
16.45833 80.562495 164.49
16.54167 80.562495 146.90
16.62500 80.562495 147.51
16.70833 80.562495 144.18
16.79167 80.562495 148.61
16.87500 80.562495 139.81
16.95833 80.687505 148.45
16.95833 80.562495 139.04
16.04167 80.4375 141.51
16.12500 80.4375 149.73
16.20833 80.4375 149.88
16.29167 80.562495 144.57
16.29167 80.4375 166.32
16.45833 80.4375 149.77
16.54167 80.4375 148.60
16.62500 80.4375 152.73
16.70833 80.4375 157.14
16.79167 80.4375 155.59
16.87500 80.4375 146.05
16.95833 80.4375 139.26
16.04167 80.312505 134.63
16.12500 80.312505 143.79
16.20833 80.312505 146.81
16.29167 80.312505 148.88
16.37500 80.4375 152.31
16.37500 80.312505 143.70
16.45833 80.312505 139.76
16.54167 80.312505 137.77
16.70833 80.312505 157.99
16.79167 80.312505 153.87
16.87500 80.312505 140.04
16.95833 80.312505 119.68
16.04167 80.187495 146.66
16.12500 80.187495 145.41
16.20833 80.187495 149.50
16.29167 80.187495 140.11
16.37500 80.187495 132.62
16.45833 80.187495 128.51
16.54167 80.187495 127.16
16.62500 80.187495 134.48
16.70833 80.187495 134.60
16.79167 80.187495 136.23
16.87500 80.187495 116.66
16.95833 80.187495 123.98
16.04167 80.0625 133.28
16.12500 80.0625 138.13
16.20833 80.0625 145.14
16.29167 80.0625 142.00
16.37500 80.0625 125.78
16.45833 80.0625 116.48
16.54167 80.0625 113.95
16.62500 80.0625 109.75
16.70833 80.0625 106.33
16.79167 80.0625 101.16
16.87500 80.0625 111.97
16.95833 80.0625 126.73
16.04167 79.937505 103.25
16.12500 79.937505 111.61
16.20833 79.937505 128.42
16.29167 79.937505 123.90
16.37500 79.937505 115.48
16.45833 79.937505 113.73
16.54167 79.937505 111.09
16.62500 79.937505 106.52
16.70833 79.937505  95.92
16.79167 79.937505  90.36
16.87500 79.937505 102.45
16.95833 79.937505 103.76
16.04167 79.812495  91.16
16.12500 79.812495  99.27
16.20833 79.812495 121.85
16.29167 79.812495 140.48
16.37500 79.812495 129.75
16.45833 79.812495 144.24
16.54167 79.812495 139.25
16.62500 79.812495 137.44
16.70833 79.812495  91.12
16.79167 79.812495  81.09
16.87500 79.812495  92.28
16.95833 79.812495  99.96
16.04167 79.6875  83.41
16.12500 79.6875  92.81
16.20833 79.6875  97.68
16.29167 79.6875 118.41
16.37500 79.6875 118.26
16.45833 79.6875 123.25
16.54167 79.6875 101.73
16.62500 79.6875  86.45
16.70833 79.6875  69.39
16.79167 79.6875  69.22
16.87500 79.6875  88.89
16.95833 79.6875 101.60
16.04167 79.562505  71.02
16.12500 79.562505  81.51
16.20833 79.562505  89.50
16.29167 79.562505  95.15
16.37500 79.562505  83.89
16.45833 79.562505  80.79
16.54167 79.562505  75.22
16.62500 79.562505  57.89
16.70833 79.562505  81.97
16.79167 79.562505  83.48
16.87500 79.562505  72.12
16.95833 79.562505  54.53
17.04167 80.937495 173.01
17.12500 80.937495 171.70
17.20833 80.937495 166.63
17.29167 80.937495 159.91
17.37500 80.937495 154.15
17.45833 80.937495 148.87
17.54167 80.937495 147.81
17.62500 80.937495 151.70
17.70833 80.937495 153.18
17.79167 80.937495 153.42
17.87500 80.937495 150.75
17.95833 80.937495 141.07
17.04167 80.8125 159.45
17.12500 80.8125 154.57
17.20833 80.8125 144.30
17.29167 80.8125 145.34
17.37500 80.8125 144.87
17.45833 80.8125 136.84
17.54167 80.8125 135.25
17.62500 80.8125 142.13
17.70833 80.8125 143.87
17.79167 80.8125 143.56
17.87500 80.8125 145.33
17.95833 80.8125 134.66
17.04167 80.687505 144.80
17.12500 80.687505 145.02
17.20833 80.687505 144.25
17.29167 80.687505 146.80
17.37500 80.687505 144.02
17.45833 80.687505 136.61
17.54167 80.687505 133.45
17.62500 80.687505 136.61
17.70833 80.687505 129.20
17.79167 80.687505 131.97
17.87500 80.687505 138.04
17.95833 80.687505 128.38
17.04167 80.562495 150.61
17.12500 80.562495 174.09
17.20833 80.562495 154.13
17.29167 80.562495 158.07
17.37500 80.562495 161.50
17.45833 80.562495 167.98
17.54167 80.562495 158.14
17.62500 80.562495 158.60
17.70833 80.562495 140.63
17.79167 80.562495 120.48
17.87500 80.562495 120.38
17.95833 80.562495 118.26
17.04167 80.4375 154.21
17.12500 80.4375 156.97
17.20833 80.4375 154.73
17.29167 80.4375 159.37
17.37500 80.4375 161.86
17.45833 80.4375 155.21
17.54167 80.4375 157.77
17.62500 80.4375 158.57
17.70833 80.4375 127.86
17.79167 80.4375 130.52
17.87500 80.4375 126.14
17.95833 80.4375 110.50
17.04167 80.312505 134.51
17.12500 80.312505 151.54
17.20833 80.312505 158.23
17.29167 80.312505 155.48
17.37500 80.312505 156.08
17.45833 80.312505 149.83
17.54167 80.312505 139.09
17.62500 80.312505 128.49
17.70833 80.312505 126.73
17.79167 80.312505 139.43
17.87500 80.312505 112.89
17.95833 80.312505 105.09
17.04167 80.187495 144.84
17.12500 80.187495 142.42
17.20833 80.187495 139.74
17.29167 80.187495 134.64
17.37500 80.187495 136.08
17.45833 80.187495 134.87
17.54167 80.187495 132.87
17.62500 80.187495 131.48
17.70833 80.187495 132.27
17.79167 80.187495 124.02
17.87500 80.187495  96.23
17.95833 80.187495  97.45
17.04167 80.0625 120.06
17.12500 80.0625 119.80
17.20833 80.0625 117.12
17.29167 80.0625 119.71
17.37500 80.0625 117.80
17.45833 80.0625 120.10
17.54167 80.0625 121.87
17.62500 80.0625 124.40
17.70833 80.0625 130.89
17.79167 80.0625 129.13
17.87500 80.0625 108.68
17.95833 80.0625  90.42
17.04167 79.937505 104.78
17.12500 79.937505 107.54
17.20833 79.937505 109.15
17.29167 79.937505 109.60
17.37500 79.937505 112.00
17.45833 79.937505 113.14
17.54167 79.937505 113.62
17.62500 79.937505 116.78
17.70833 79.937505 115.70
17.79167 79.937505 120.18
17.87500 79.937505 111.65
17.95833 79.937505  90.08
17.04167 79.812495 104.91
17.12500 79.812495 106.27
17.20833 79.812495 102.39
17.29167 79.812495 100.13
17.37500 79.812495 100.66
17.45833 79.812495 102.02
17.54167 79.812495 103.75
17.62500 79.812495 104.89
17.70833 79.812495 109.35
17.79167 79.812495 102.58
17.87500 79.812495  91.73
17.95833 79.812495  74.83
17.04167 79.6875  95.69
17.12500 79.6875  85.18
17.20833 79.6875  91.75
17.29167 79.6875  70.58
17.37500 79.6875  72.13
17.45833 79.6875  71.04
17.54167 79.6875  78.57
17.62500 79.6875  72.07
17.70833 79.6875  67.74
17.79167 79.6875  68.25
17.87500 79.6875  67.34
17.95833 79.6875  60.39
17.04167 79.562505  59.69
17.12500 79.562505  67.89
17.20833 79.562505  72.83
17.29167 79.562505  78.71
17.37500 79.562505  82.92
17.45833 79.562505  89.92
17.54167 79.562505  86.16
17.62500 79.562505  81.48
17.70833 79.562505  84.09
17.79167 79.562505  72.28
17.87500 79.562505  67.38
17.95833 79.562505  69.75
18.04167 80.937495 138.71
18.12500 80.937495 139.13
18.20833 80.937495 137.84
18.29167 80.937495 127.72
18.37500 80.937495 122.32
18.45833 80.937495 108.77
18.54167 80.937495  95.24
18.62500 80.937495  70.68
18.70833 80.937495  53.95
18.79167 80.937495  31.25
18.87500 80.937495  12.14
18.95833 80.937495  38.24
18.04167 80.8125 131.30
18.12500 80.8125 130.82
18.20833 80.8125 129.71
18.29167 80.8125 117.33
18.37500 80.8125 109.86
18.45833 80.8125 108.52
18.54167 80.8125  90.92
18.62500 80.8125  68.04
18.70833 80.8125  51.53
18.79167 80.8125  41.67
18.87500 80.8125  16.78
18.95833 80.8125  35.77
18.04167 80.687505 127.43
18.12500 80.687505 123.80
18.20833 80.687505 115.46
18.29167 80.687505 109.92
18.37500 80.687505 101.78
18.45833 80.687505 103.17
18.54167 80.687505  91.96
18.62500 80.687505  72.38
18.70833 80.687505  63.43
18.79167 80.687505  51.28
18.87500 80.687505  13.02
18.95833 80.687505  48.01
18.04167 80.562495 120.83
18.12500 80.562495 122.84
18.20833 80.562495 106.27
18.29167 80.562495 101.35
18.37500 80.562495  95.05
18.45833 80.562495  94.07
18.54167 80.562495  93.81
18.62500 80.562495  90.95
18.70833 80.562495  78.71
18.79167 80.562495  42.28
18.87500 80.562495  18.39
18.95833 80.562495  60.70
18.04167 80.4375 118.61
18.12500 80.4375 120.70
18.20833 80.4375 101.52
18.29167 80.4375  89.87
18.37500 80.4375  94.07
18.45833 80.4375  93.28
18.54167 80.4375  82.85
18.62500 80.4375  80.93
18.70833 80.4375  48.15
18.79167 80.4375  17.13
18.87500 80.4375  58.40
18.95833 80.4375  89.00
18.04167 80.312505 111.02
18.12500 80.312505 111.01
18.20833 80.312505 106.65
18.29167 80.312505  98.72
18.37500 80.312505  81.24
18.45833 80.312505  88.15
18.54167 80.312505  75.27
18.62500 80.312505  55.41
18.70833 80.312505  21.32
18.79167 80.312505  39.97
18.87500 80.312505  66.33
18.95833 80.312505  84.45
18.04167 80.187495 101.36
18.12500 80.187495 105.93
18.20833 80.187495 103.91
18.29167 80.187495  97.50
18.37500 80.187495  72.06
18.45833 80.187495  82.66
18.54167 80.187495  72.19
18.62500 80.187495  33.25
18.70833 80.187495  25.47
18.79167 80.187495  28.59
18.87500 80.187495  72.86
18.95833 80.187495  93.00
18.04167 80.0625  95.66
18.12500 80.0625  98.84
18.20833 80.0625  99.58
18.29167 80.0625  79.27
18.37500 80.0625  37.33
18.45833 80.0625  40.03
18.54167 80.0625  38.63
18.62500 80.0625  65.53
18.70833 80.0625  70.35
18.79167 80.0625  88.26
18.87500 80.0625 105.11
18.95833 80.0625 105.88
18.04167 79.937505  90.60
18.12500 79.937505  92.55
18.20833 79.937505  93.47
18.29167 79.937505  55.10
18.37500 79.937505  51.35
18.45833 79.937505  83.69
18.54167 79.937505  87.29
18.62500 79.937505  95.94
18.70833 79.937505 102.00
18.79167 79.937505 103.77
18.87500 79.937505 101.84
18.95833 79.937505 103.93
18.04167 79.812495  85.53
18.12500 79.812495  93.47
18.20833 79.812495  53.37
18.29167 79.812495  68.15
18.37500 79.812495  70.38
18.45833 79.812495  90.55
18.54167 79.812495  89.28
18.62500 79.812495  96.37
18.70833 79.812495  98.54
18.79167 79.812495  95.48
18.87500 79.812495  95.33
18.95833 79.812495  96.33
18.04167 79.6875  55.07
18.12500 79.6875  45.58
18.20833 79.6875  47.64
18.29167 79.6875  60.49
18.37500 79.6875  58.58
18.45833 79.6875  68.24
18.54167 79.6875  85.27
18.62500 79.6875  87.00
18.70833 79.6875  89.22
18.79167 79.6875  89.24
18.87500 79.6875  89.28
18.95833 79.6875  85.45
18.04167 79.562505  74.21
18.12500 79.562505  69.89
18.20833 79.562505  61.65
18.29167 79.562505  57.52
18.37500 79.562505  52.41
18.45833 79.562505  41.81
18.54167 79.562505  54.55
18.62500 79.562505  65.22
18.70833 79.562505  70.33
18.79167 79.562505  70.90
18.87500 79.562505  77.78
18.95833 79.562505  83.68
19.04167 80.937495  46.49
19.12500 80.937495  34.03
19.20833 80.937495  43.55
19.29167 80.937495  49.48
19.37500 80.937495  23.04
19.45833 80.937495  61.05
19.54167 80.937495  87.48
19.62500 80.937495 110.55
19.70833 80.937495 122.84
19.79167 80.937495 131.21
19.87500 80.937495 149.01
19.95833 80.937495 135.02
19.04167 80.8125  60.50
19.12500 80.8125  68.30
19.20833 80.8125  78.12
19.29167 80.8125  81.88
19.37500 80.8125  77.96
19.45833 80.8125  98.49
19.54167 80.8125 107.16
19.62500 80.8125 113.75
19.70833 80.8125 121.11
19.79167 80.8125 112.96
19.87500 80.8125 110.73
19.95833 80.8125 119.84
19.04167 80.687505  77.82
19.12500 80.687505  83.13
19.20833 80.687505  94.93
19.29167 80.687505 101.02
19.37500 80.687505 101.00
19.45833 80.687505 109.25
19.54167 80.687505 109.10
19.62500 80.687505 108.50
19.70833 80.687505 117.28
19.79167 80.687505 108.77
19.87500 80.687505 112.44
19.95833 80.687505 120.05
19.04167 80.562495  87.59
19.12500 80.562495  93.86
19.20833 80.562495 100.77
19.29167 80.562495 103.56
19.37500 80.562495 108.38
19.45833 80.562495 108.93
19.54167 80.562495 111.69
19.62500 80.562495 108.58
19.70833 80.562495 109.10
19.79167 80.562495 105.84
19.87500 80.562495 105.09
19.95833 80.562495 111.48
19.04167 80.4375  92.55
19.12500 80.4375  91.87
19.20833 80.4375  98.18
19.29167 80.4375 104.78
19.37500 80.4375 102.22
19.45833 80.4375 103.36
19.54167 80.4375 107.10
19.62500 80.4375 107.57
19.70833 80.4375 106.47
19.79167 80.4375 111.08
19.87500 80.4375 138.09
19.95833 80.4375 171.84
19.04167 80.312505  91.19
19.12500 80.312505  98.86
19.20833 80.312505  99.06
19.29167 80.312505  99.62
19.37500 80.312505  95.98
19.45833 80.312505 105.47
19.54167 80.312505 108.17
19.62500 80.312505 103.21
19.70833 80.312505 107.16
19.79167 80.312505 159.72
19.87500 80.312505 204.26
19.95833 80.312505 236.43
19.04167 80.187495  83.73
19.12500 80.187495  82.99
19.20833 80.187495  83.47
19.29167 80.187495  90.31
19.37500 80.187495  96.12
19.45833 80.187495 109.41
19.54167 80.187495 123.27
19.62500 80.187495 106.79
19.70833 80.187495 125.17
19.79167 80.187495 159.00
19.87500 80.187495 195.97
19.95833 80.187495 195.95
19.04167 80.0625 103.22
19.12500 80.0625  91.84
19.20833 80.0625  93.59
19.29167 80.0625  94.69
19.37500 80.0625  92.74
19.45833 80.0625 108.73
19.54167 80.0625 108.85
19.62500 80.0625 137.69
19.70833 80.0625 133.29
19.79167 80.0625 145.15
19.87500 80.0625 161.25
19.95833 80.0625 161.63
19.04167 79.937505 101.44
19.12500 79.937505  99.99
19.20833 79.937505 102.66
19.29167 79.937505 102.42
19.37500 79.937505 102.18
19.45833 79.937505  97.55
19.54167 79.937505  96.33
19.62500 79.937505 118.63
19.70833 79.937505 145.60
19.79167 79.937505 153.03
19.87500 79.937505 149.31
19.95833 79.937505 153.76
19.04167 79.812495  95.38
19.12500 79.812495  91.97
19.20833 79.812495  92.65
19.29167 79.812495  86.08
19.37500 79.812495  97.15
19.45833 79.812495 135.45
19.54167 79.812495 126.36
19.62500 79.812495 123.12
19.70833 79.812495 132.48
19.79167 79.812495 147.82
19.87500 79.812495 150.96
19.95833 79.812495 154.93
19.04167 79.6875  84.27
19.12500 79.6875  85.24
19.20833 79.6875 107.85
19.29167 79.6875 108.92
19.37500 79.6875  99.73
19.45833 79.6875 137.67
19.54167 79.6875 139.08
19.62500 79.6875 133.17
19.70833 79.6875 137.40
19.79167 79.6875 143.20
19.87500 79.6875 149.06
19.95833 79.6875 154.17
19.04167 79.562505  93.93
19.12500 79.562505  97.42
19.20833 79.562505 110.09
19.29167 79.562505 120.27
19.37500 79.562505 115.72
19.45833 79.562505 124.26
19.54167 79.562505 130.59
19.62500 79.562505 125.17
19.70833 79.562505 127.16
19.79167 79.562505 130.43
19.87500 79.562505 130.41
19.95833 79.562505 129.76
20.04167 80.937495 119.11
20.12500 80.937495 125.16
20.20833 80.937495 107.24
20.29167 80.937495 124.74
20.37500 80.937495 104.79
20.45833 80.937495 111.73
20.54167 80.937495 143.59
20.62500 80.937495 153.62
20.70833 80.937495 146.14
20.79167 80.937495 151.47
20.87500 80.937495 154.13
20.95833 80.937495 170.06
20.04167 80.8125 113.33
20.12500 80.8125 111.98
20.20833 80.8125 117.96
20.29167 80.8125 148.89
20.37500 80.8125 114.03
20.45833 80.8125 126.91
20.54167 80.8125 141.61
20.62500 80.8125 138.75
20.70833 80.8125 142.24
20.79167 80.8125 137.71
20.87500 80.8125 141.54
20.95833 80.8125 156.91
